# .PCD v0.7 - Point Cloud Data file format
VERSION 0.7
FIELDS x y z rgba
SIZE 4 4 4 4
TYPE F F F U
COUNT 1 1 1 1
WIDTH 1033
HEIGHT 1
VIEWPOINT 0 0 0 1 0 0 0
POINTS 1033
DATA ascii
-0.085269526 -0.12551238 0.70599997 4283978560
-0.085269526 -0.1241441 0.70599997 4283912767
-0.085390307 -0.10650711 0.70700002 4283519039
-0.085269526 -0.10498817 0.70599997 4283913541
-0.085148744 -0.10347313 0.70499998 4284176714
-0.085148744 -0.10210678 0.70499998 4284242509
-0.085148744 -0.10074044 0.70499998 4284308301
-0.085148744 -0.099374093 0.70499998 4284045128
-0.085269526 -0.098146774 0.70599997 4283847749
-0.085390307 -0.096915573 0.70700002 4283453245
-0.085390307 -0.095545359 0.70700002 4282729779
-0.085511081 -0.094308339 0.708 4282926901
-0.085631862 -0.093067445 0.70899999 4283650624
-0.085511081 -0.091564029 0.708 4283453502
-0.085390307 -0.090064481 0.70700002 4283058487
-0.085390307 -0.08869426 0.70700002 4283650624
-0.085148744 -0.087077014 0.70499998 4284045382
-0.085148744 -0.085710667 0.70499998 4283650624
-0.085148744 -0.084344327 0.70499998 4283057975
-0.085148744 -0.082977988 0.70499998 4282926390
-0.085269526 -0.0817274 0.70599997 4283255355
-0.085269526 -0.080359124 0.70599997 4283255100
-0.085269526 -0.078990839 0.70599997 4283452735
-0.085390307 -0.077732511 0.70700002 4283650370
-0.085390307 -0.076362297 0.70700002 4283650371
-0.085511081 -0.075098142 0.708 4283716936
-0.085511081 -0.073725991 0.708 4284374610
-0.085511081 -0.072353832 0.708 4284637783
-0.085511081 -0.070981674 0.708 4285558886
-0.085631862 -0.069707833 0.70899999 4285427557
-0.085631862 -0.068333738 0.70899999 4286019439
-0.072376035 -0.20859221 0.60900003 4287596930
-0.072257183 -0.20707133 0.60799998 4289240464
-0.072257183 -0.20589298 0.60799998 4290160774
-0.073683314 -0.17511009 0.62 4288045066
-0.074871756 -0.14740977 0.63 4287393562
-0.083428532 -0.15745395 0.70200002 4286146327
-0.083903901 -0.15698284 0.70599997 4284962843
-0.08414159 -0.15605541 0.708 4283120920
-0.084022753 -0.1503541 0.70700002 4283584051
-0.084022753 -0.1489839 0.70700002 4283649846
-0.08414159 -0.14782245 0.708 4283715639
-0.084260434 -0.14665715 0.70899999 4283386420
-0.084379278 -0.13998383 0.70999998 4283715131
-0.084379278 -0.1386078 0.70999998 4282794286
-0.084022753 -0.13665192 0.70700002 4283254836
-0.083785057 -0.13489901 0.70499998 4283057457
-0.083666213 -0.13334325 0.704 4282531113
-0.083785057 -0.13216631 0.70499998 4283123250
-0.083785057 -0.13079998 0.70499998 4284044352
-0.083785057 -0.12943363 0.70499998 4284043839
-0.083903901 -0.12824894 0.70599997 4284372805
-0.084022753 -0.12706038 0.70700002 4284241733
-0.084022753 -0.12569018 0.70700002 4283846976
-0.084022753 -0.12431996 0.70700002 4283451961
-0.08414159 -0.12312363 0.708 4283057460
-0.084022753 -0.12157951 0.70700002 4283913282
-0.083903901 -0.12003926 0.70599997 4284044869
-0.083903901 -0.11867098 0.70599997 4283584318
-0.08414159 -0.10665775 0.708 4283124025
-0.083903901 -0.10498817 0.70599997 4283650370
-0.083903901 -0.1036199 0.70599997 4283913542
-0.083785057 -0.10210678 0.70499998 4284045130
-0.083785057 -0.10074044 0.70499998 4283847750
-0.083666213 -0.099233143 0.704 4283650370
-0.083903901 -0.098146774 0.70599997 4283518784
-0.084022753 -0.096915573 0.70700002 4283321659
-0.084022753 -0.095545359 0.70700002 4283059001
-0.08414159 -0.094308339 0.708 4282795315
-0.084260434 -0.093067445 0.70899999 4282663729
-0.08414159 -0.091564029 0.708 4282532400
-0.08414159 -0.088819712 0.708 4282926901
-0.083903901 -0.087200522 0.70599997 4283190073
-0.084022753 -0.085953824 0.70700002 4283124280
-0.083903901 -0.084463961 0.70599997 4283386941
-0.083785057 -0.082977988 0.70499998 4283650112
-0.083903901 -0.0817274 0.70599997 4283715905
-0.083785057 -0.080245301 0.70499998 4283715906
-0.083903901 -0.078990839 0.70599997 4284044873
-0.083903901 -0.077622563 0.70599997 4284242509
-0.083903901 -0.076254278 0.70599997 4283584579
-0.084022753 -0.074992076 0.70700002 4283519301
-0.084022753 -0.073621854 0.70700002 4284111438
-0.084022753 -0.07225164 0.70700002 4284769370
-0.084022753 -0.070881419 0.70700002 4284506198
-0.08414159 -0.069609515 0.708 4284571991
-0.08414159 -0.068237357 0.708 4286808954
-0.071081124 -0.20824967 0.60799998 4288057223
-0.070964217 -0.20673075 0.60699999 4289174924
-0.070730396 -0.20487708 0.60500002 4290160759
-0.072484039 -0.17511009 0.62 4288045576
-0.073536232 -0.14717577 0.62900001 4287524889
-0.08242137 -0.15676048 0.70499998 4285751836
-0.082655191 -0.15583499 0.70700002 4283450379
-0.082772098 -0.15056677 0.708 4283386415
-0.082772098 -0.14919461 0.708 4283649589
-0.082889006 -0.14803125 0.70899999 4283255088
-0.08242137 -0.13216631 0.70499998 4283123250
-0.082538277 -0.1309855 0.70599997 4283386423
-0.082538277 -0.12961723 0.70599997 4283649338
-0.082655191 -0.1284306 0.70700002 4283912511
-0.082772098 -0.12724011 0.708 4284044355
-0.082772098 -0.12586795 0.708 4283583291
-0.082772098 -0.12449579 0.708 4282991411
-0.082772098 -0.12312363 0.708 4283649854
-0.082655191 -0.12157951 0.70700002 4284308041
-0.082538277 -0.12003926 0.70599997 4284176454
-0.082538277 -0.11867098 0.70599997 4283650109
-0.082772098 -0.10665775 0.708 4282466608
-0.082538277 -0.10498817 0.70599997 4283321405
-0.082538277 -0.1036199 0.70599997 4283584577
-0.08242137 -0.10210678 0.70499998 4283387200
-0.08242137 -0.10074044 0.70499998 4283124284
-0.082304463 -0.099233143 0.704 4283387198
-0.082538277 -0.098146774 0.70599997 4283518784
-0.082655191 -0.095545359 0.70700002 4283453245
-0.082772098 -0.094308339 0.708 4282927158
-0.082889006 -0.093067445 0.70899999 4282795829
-0.082772098 -0.091564029 0.708 4282664243
-0.082772098 -0.090191871 0.708 4283124537
-0.082772098 -0.087447554 0.708 4283387452
-0.082655191 -0.085953824 0.70700002 4283452732
-0.082538277 -0.084463961 0.70599997 4283978819
-0.08242137 -0.082977988 0.70499998 4283979077
-0.082538277 -0.0817274 0.70599997 4283913284
-0.08242137 -0.080245301 0.70499998 4284110664
-0.08242137 -0.078878954 0.70499998 4284702801
-0.082538277 -0.077622563 0.70599997 4284768851
-0.082655191 -0.076362297 0.70700002 4283782727
-0.082538277 -0.074886002 0.70599997 4283782473
-0.082538277 -0.073517717 0.70599997 4284966747
-0.082538277 -0.072149441 0.70599997 4285493092
-0.082538277 -0.070781156 0.70599997 4284769370
-0.082655191 -0.069511198 0.70700002 4285098335
-0.082772098 -0.068237357 0.708 4286808953
-0.07024999 -0.21164556 0.611 4286545523
-0.070020042 -0.2097725 0.60900003 4286413166
-0.069905065 -0.20824967 0.60799998 4287596926
-0.06967511 -0.20639019 0.60600001 4288254072
-0.069330186 -0.20419978 0.60299999 4290292586
-0.072089598 -0.1467078 0.62699997 4287393301
-0.072319552 -0.14595674 0.62900001 4287130900
-0.080942705 -0.15653813 0.704 4286212637
-0.081172653 -0.15561455 0.70599997 4284963605
-0.081402607 -0.15468325 0.708 4283450141
-0.081402607 -0.15331109 0.708 4283187493
-0.081402607 -0.15193893 0.708 4282201626
-0.081402607 -0.15056677 0.708 4282662690
-0.081402607 -0.14919461 0.708 4283189037
-0.081172653 -0.13235378 0.70599997 4282333734
-0.081287637 -0.13117105 0.70700002 4282267942
-0.081287637 -0.12980083 0.70700002 4282465321
-0.081402607 -0.12861226 0.708 4283254838
-0.081517585 -0.12741981 0.70899999 4283057204
-0.081402607 -0.12586795 0.708 4282925618
-0.081402607 -0.12449579 0.708 4283386425
-0.081517585 -0.12329753 0.70899999 4283123767
-0.081402607 -0.12175148 0.708 4283847490
-0.081172653 -0.12003926 0.70599997 4284110660
-0.081172653 -0.11867098 0.70599997 4283452987
-0.081402607 -0.11077422 0.708 4283519038
-0.081517585 -0.10955659 0.70899999 4283848003
-0.081402607 -0.10802991 0.708 4282993208
-0.081402607 -0.10665775 0.708 4282466352
-0.081287637 -0.10376667 0.70700002 4282860854
-0.081172653 -0.10225161 0.70599997 4282992442
-0.081057683 -0.10074044 0.70499998 4283321662
-0.081057683 -0.099374093 0.70499998 4283452991
-0.081172653 -0.098146774 0.70599997 4283650370
-0.081287637 -0.096915573 0.70700002 4283518783
-0.081287637 -0.095545359 0.70700002 4283124280
-0.081287637 -0.094175138 0.70700002 4283058744
-0.081402607 -0.092936181 0.708 4283585345
-0.081402607 -0.091564029 0.708 4283782724
-0.081517585 -0.090319261 0.70899999 4283782724
-0.081517585 -0.088945165 0.70899999 4284111689
-0.081517585 -0.086196974 0.70899999 4283452732
-0.081287637 -0.08458361 0.70700002 4284110662
-0.081172653 -0.083095685 0.70599997 4284242249
-0.081172653 -0.0817274 0.70599997 4284308043
-0.081057683 -0.080245301 0.70499998 4284373836
-0.081057683 -0.078878954 0.70499998 4284702801
-0.081057683 -0.077512614 0.70499998 4284637265
-0.081057683 -0.076146275 0.70499998 4284177486
-0.081057683 -0.074779928 0.70499998 4284703575
-0.081057683 -0.073413588 0.70499998 4285098333
-0.081057683 -0.072047241 0.70499998 4285295712
-0.080942705 -0.070580646 0.704 4284637783
-0.081172653 -0.06941288 0.70599997 4285493092
-0.081287637 -0.068140984 0.70700002 4286545781
-0.069181167 -0.21199195 0.61199999 4286479475
-0.068955086 -0.21011695 0.61000001 4286676594
-0.068728998 -0.20824967 0.60799998 4287005042
-0.068389885 -0.20604961 0.60500002 4287398756
-0.068163797 -0.20419978 0.60299999 4291016042
-0.070650704 -0.14623985 0.625 4287722264
-0.070989825 -0.14572468 0.62800002 4287393558
-0.071555033 -0.14565812 0.63300002 4287196694
-0.079920076 -0.15446477 0.70700002 4284239642
-0.080033116 -0.15331109 0.708 4283581733
-0.080033116 -0.15193893 0.708 4282859298
-0.080033116 -0.15056677 0.708 4282794275
-0.079920076 -0.1489839 0.70700002 4282728741
-0.080033116 -0.12175148 0.708 4283584318
-0.079920076 -0.1202093 0.70700002 4283847488
-0.079920076 -0.11883908 0.70700002 4283386937
-0.079693988 -0.11303752 0.70499998 4283255610
-0.079693988 -0.11167118 0.70499998 4283913796
-0.079807028 -0.11046129 0.70599997 4284111175
-0.079920076 -0.10924754 0.70700002 4283716417
-0.079920076 -0.10787733 0.70700002 4283256123
-0.080033116 -0.10665775 0.708 4283321917
-0.079920076 -0.10513689 0.70700002 4283650370
-0.079920076 -0.10376667 0.70700002 4282860854
-0.079807028 -0.10225161 0.70599997 4283321407
-0.079807028 -0.10088333 0.70599997 4283847493
-0.079807028 -0.099515051 0.70599997 4283979078
-0.079920076 -0.098285794 0.70700002 4283913285
-0.080033116 -0.097052656 0.708 4283255866
-0.079920076 -0.095545359 0.70700002 4282663729
-0.079920076 -0.094175138 0.70700002 4283058744
-0.080033116 -0.092936181 0.708 4283256380
-0.079920076 -0.091434702 0.70700002 4283980103
-0.080146156 -0.090319261 0.70899999 4284243275
-0.080259196 -0.089070611 0.70999998 4284177482
-0.080259196 -0.087694578 0.70999998 4284176968
-0.080146156 -0.086196974 0.70899999 4283452732
-0.079920076 -0.08458361 0.70700002 4283452734
-0.079807028 -0.083095685 0.70599997 4283781699
-0.079807028 -0.0817274 0.70599997 4283913285
-0.079693988 -0.080245301 0.70499998 4284110666
-0.079693988 -0.078878954 0.70499998 4284242507
-0.079693988 -0.077512614 0.70499998 4283914055
-0.079693988 -0.076146275 0.70499998 4284111691
-0.079467908 -0.074567787 0.70300001 4284835416
-0.079580948 -0.073309459 0.704 4285163868
-0.079580948 -0.071945049 0.704 4285098075
-0.079467908 -0.070480391 0.70300001 4284374353
-0.079693988 -0.069314562 0.70499998 4285624677
-0.079920076 -0.068140984 0.70700002 4285887850
-0.067441836 -0.20790717 0.60699999 4288452742
-0.069441758 -0.14623985 0.625 4287788057
-0.069663972 -0.14549263 0.62699997 4287656471
-0.070219509 -0.14542802 0.63200003 4287394071
-0.078330301 -0.1540278 0.70499998 4284963861
-0.078552522 -0.15309455 0.70700002 4283844899
-0.078663625 -0.15193893 0.708 4282990368
-0.078663625 -0.15056677 0.708 4283056935
-0.078552522 -0.1489839 0.70700002 4283057193
-0.078552522 -0.1352817 0.70700002 4283781178
-0.078441404 -0.13372207 0.70599997 4283912765
-0.078552522 -0.13254127 0.70700002 4283255349
-0.078663625 -0.12175148 0.708 4282794802
-0.078552522 -0.1202093 0.70700002 4282794800
-0.078552522 -0.11883908 0.70700002 4282597421
-0.078330301 -0.11303752 0.70499998 4283781954
-0.078330301 -0.11167118 0.70499998 4283914053
-0.078441404 -0.11046129 0.70599997 4283519552
-0.078441404 -0.10909302 0.70599997 4282861622
-0.078552522 -0.10787733 0.70700002 4282664243
-0.078663625 -0.10665775 0.708 4283979591
-0.078552522 -0.10513689 0.70700002 4284176714
-0.078552522 -0.10376667 0.70700002 4283255612
-0.078552522 -0.10239645 0.70700002 4283123771
-0.078441404 -0.10088333 0.70599997 4283715907
-0.078441404 -0.099515051 0.70599997 4283979078
-0.078552522 -0.098285794 0.70700002 4283452991
-0.078663625 -0.097052656 0.708 4282860851
-0.078552522 -0.095545359 0.70700002 4282860853
-0.078552522 -0.094175138 0.70700002 4283782467
-0.078663625 -0.092936181 0.708 4283914310
-0.078552522 -0.091434702 0.70700002 4283980103
-0.078774728 -0.090319261 0.70899999 4284111689
-0.078996949 -0.089196071 0.71100003 4283651138
-0.078885831 -0.087694578 0.70999998 4283519038
-0.078774728 -0.086196974 0.70899999 4283124025
-0.078552522 -0.08458361 0.70700002 4283189562
-0.078330301 -0.082977988 0.70499998 4283452734
-0.078330301 -0.081611641 0.70499998 4283715652
-0.078330301 -0.080245301 0.70499998 4283847751
-0.078330301 -0.078878954 0.70499998 4283453505
-0.078330301 -0.077512614 0.70499998 4283387968
-0.078330301 -0.076146275 0.70499998 4284572242
-0.078108087 -0.074567787 0.70300001 4284769623
-0.078108087 -0.073205322 0.70300001 4284834646
-0.078108087 -0.071842857 0.70300001 4284176716
-0.077996984 -0.070380136 0.70200002 4284045131
-0.078330301 -0.069314562 0.70499998 4284374610
-0.078552522 -0.068140984 0.70700002 4284440916
-0.066158533 -0.20756465 0.60600001 4289439382
-0.068232812 -0.14502855 0.625 4287590676
-0.068451159 -0.14427745 0.62699997 4287394326
-0.07685744 -0.15380932 0.704 4285883929
-0.07718496 -0.15309455 0.70700002 4284239131
-0.077294134 -0.15193893 0.708 4283055390
-0.07718496 -0.1503541 0.70700002 4283254056
-0.077075779 -0.14877315 0.70599997 4283122987
-0.077294134 -0.13958952 0.708 4283516467
-0.077294134 -0.13821736 0.708 4283780408
-0.07718496 -0.13665192 0.70700002 4284044093
-0.07718496 -0.1352817 0.70700002 4284570694
-0.07718496 -0.13391149 0.70700002 4284834124
-0.077294134 -0.13272873 0.708 4284374087
-0.077075779 -0.11319786 0.70599997 4283518781
-0.076966614 -0.11167118 0.70499998 4283256123
-0.077075779 -0.11046129 0.70599997 4283387966
-0.07718496 -0.10924754 0.70700002 4282861622
-0.07718496 -0.10787733 0.70700002 4283124794
-0.07718496 -0.10650711 0.70700002 4284111177
-0.07718496 -0.10513689 0.70700002 4284242507
-0.077294134 -0.10391344 0.708 4283321148
-0.07718496 -0.10239645 0.70700002 4282597425
-0.07718496 -0.095545359 0.70700002 4283518783
-0.07718496 -0.094175138 0.70700002 4283782468
-0.077294134 -0.092936181 0.708 4283848517
-0.07718496 -0.091434702 0.70700002 4284045896
-0.0774033 -0.090319261 0.70899999 4283519552
-0.077512473 -0.089070611 0.70999998 4283059001
-0.077512473 -0.087694578 0.70999998 4282729522
-0.077294134 -0.086075403 0.708 4282795060
-0.077075779 -0.084463961 0.70599997 4282795062
-0.07685744 -0.082860291 0.704 4282926647
-0.076966614 -0.081611641 0.70499998 4283387198
-0.076966614 -0.080245301 0.70499998 4283058235
-0.076966614 -0.078878954 0.70499998 4283058747
-0.076966614 -0.077512614 0.70499998 4283716933
-0.076966614 -0.076146275 0.70499998 4284374863
-0.07685744 -0.074673861 0.704 4284439887
-0.07685744 -0.073309459 0.704 4284176716
-0.07685744 -0.071945049 0.704 4283716165
-0.07685744 -0.070580646 0.704 4284374095
-0.077075779 -0.06941288 0.70599997 4284111181
-0.077294134 -0.068237357 0.708 4283716937
-0.064771861 -0.20687962 0.60399997 4289965212
-0.06691663 -0.14479651 0.62400001 4287656980
-0.067023866 -0.14381725 0.625 4287525655
-0.067667298 -0.14397497 0.63099998 4287394326
-0.067881778 -0.14320451 0.63300002 4287262998
-0.075602926 -0.15266146 0.70499998 4285094425
-0.075710163 -0.15150972 0.70599997 4283449624
-0.075817406 -0.1503541 0.70700002 4283055393
-0.075710163 -0.14877315 0.70599997 4283188010
-0.075817406 -0.13939236 0.70700002 4283713845
-0.075817406 -0.13802214 0.70700002 4283911994
-0.075817406 -0.13665192 0.70700002 4284175679
-0.075817406 -0.1352817 0.70700002 4284439108
-0.075817406 -0.13391149 0.70700002 4284439365
-0.075924642 -0.13272873 0.708 4284176708
-0.076031879 -0.12467163 0.70899999 4283189558
-0.076139115 -0.12347144 0.70999998 4283452731
-0.075817406 -0.12157951 0.70700002 4283518523
-0.075710163 -0.12003926 0.70599997 4283255351
-0.075710163 -0.11319786 0.70599997 4282597679
-0.075710163 -0.11182958 0.70599997 4283058742
-0.075817406 -0.11061776 0.70700002 4283980357
-0.075817406 -0.10924754 0.70700002 4283519551
-0.075817406 -0.10787733 0.70700002 4283519552
-0.075817406 -0.10650711 0.70700002 4284177225
-0.075924642 -0.10528559 0.708 4284505678
-0.075817406 -0.10376667 0.70700002 4283781699
-0.075924642 -0.10254128 0.708 4282860597
-0.075710163 -0.095410205 0.70599997 4283321404
-0.075817406 -0.094175138 0.70700002 4283781956
-0.075817406 -0.092804916 0.70700002 4283651138
-0.075817406 -0.091434702 0.70700002 4283190587
-0.075924642 -0.090191871 0.708 4282532657
-0.076031879 -0.088945165 0.70899999 4282729779
-0.075924642 -0.087447554 0.708 4282992694
-0.075817406 -0.085953824 0.70700002 4283190073
-0.075495683 -0.084224693 0.704 4283189819
-0.075388446 -0.082742587 0.70300001 4283058233
-0.075495683 -0.081495881 0.704 4282992440
-0.075602926 -0.080245301 0.70499998 4282795061
-0.075602926 -0.078878954 0.70499998 4282992954
-0.075710163 -0.077622563 0.70599997 4283322175
-0.075710163 -0.076254278 0.70599997 4283584577
-0.075602926 -0.074779928 0.70499998 4283650371
-0.075602926 -0.073413588 0.70499998 4283452993
-0.075602926 -0.072047241 0.70499998 4283518786
-0.075602926 -0.070680901 0.70499998 4284374095
-0.075817406 -0.069511198 0.70700002 4284571475
-0.076031879 -0.068333738 0.70899999 4283782728
-0.065814927 -0.14381725 0.625 4287789081
-0.065814927 -0.14260596 0.625 4287525911
-0.066657357 -0.14320451 0.63300002 4287591961
-0.074133933 -0.15244491 0.704 4285883673
-0.074239232 -0.15129511 0.70499998 4284634137
-0.074344538 -0.15014143 0.70599997 4283186461
-0.074344538 -0.14877315 0.70599997 4282924323
-0.074555151 -0.13958952 0.708 4283517235
-0.074449845 -0.13802214 0.70700002 4283583027
-0.074449845 -0.13665192 0.70700002 4283846713
-0.074449845 -0.1352817 0.70700002 4283254834
-0.074449845 -0.13391149 0.70700002 4283452470
-0.074555151 -0.13272873 0.708 4283058225
-0.07466045 -0.12467163 0.70899999 4283321144
-0.07466045 -0.12329753 0.70899999 4283386938
-0.074449845 -0.12157951 0.70700002 4283518523
-0.074239232 -0.11986923 0.70499998 4283321144
-0.074449845 -0.1133582 0.70700002 4282466349
-0.074449845 -0.11198799 0.70700002 4283453499
-0.074555151 -0.11077422 0.708 4283848514
-0.074555151 -0.10940207 0.708 4282861876
-0.074449845 -0.10787733 0.70700002 4283190587
-0.074449845 -0.10650711 0.70700002 4284177225
-0.074449845 -0.10513689 0.70700002 4284374090
-0.074449845 -0.10376667 0.70700002 4284176457
-0.074555151 -0.10254128 0.708 4283452734
-0.074344538 -0.095410205 0.70599997 4282728756
-0.074344538 -0.094041929 0.70599997 4283255612
-0.074449845 -0.092804916 0.70700002 4283058744
-0.074449845 -0.091434702 0.70700002 4282334764
-0.074555151 -0.090191871 0.708 4282269228
-0.07466045 -0.088945165 0.70899999 4282663729
-0.074555151 -0.087447554 0.708 4283124280
-0.074344538 -0.085832246 0.70599997 4283913796
-0.074344538 -0.084463961 0.70599997 4283979591
-0.074028626 -0.082742587 0.70300001 4283650625
-0.074133933 -0.081495881 0.704 4283321660
-0.074239232 -0.080245301 0.70499998 4282992440
-0.074344538 -0.078990839 0.70599997 4283256382
-0.074449845 -0.077732511 0.70700002 4283782726
-0.074449845 -0.076362297 0.70700002 4283650370
-0.074239232 -0.074779928 0.70499998 4283058234
-0.074344538 -0.073517717 0.70599997 4282926649
-0.074344538 -0.072149441 0.70599997 4283518786
-0.074344538 -0.070781156 0.70599997 4284374095
-0.074555151 -0.069609515 0.708 4284374096
-0.07466045 -0.068333738 0.70899999 4284045644
-0.064502612 -0.14237779 0.62400001 4287723288
-0.065846421 -0.14287488 0.63700002 4287526425
-0.072875544 -0.15129511 0.70499998 4285423898
-0.072668806 -0.14950345 0.70300001 4283581716
-0.072875544 -0.14856243 0.70499998 4282923550
-0.072978914 -0.14740488 0.70599997 4282595874
-0.072978914 -0.1460366 0.70599997 4282859562
-0.072875544 -0.14446341 0.70499998 4283648822
-0.073185652 -0.13958952 0.708 4283714613
-0.073082291 -0.13802214 0.70700002 4283583284
-0.072978914 -0.13645864 0.70599997 4282859817
-0.072978914 -0.13509035 0.70599997 4282136351
-0.072978914 -0.13372207 0.70599997 4282728745
-0.073082291 -0.13254127 0.70700002 4283518776
-0.073185652 -0.13135658 0.708 4283716153
-0.073185652 -0.12449579 0.708 4283321400
-0.073185652 -0.12312363 0.708 4283518522
-0.073082291 -0.12157951 0.70700002 4283386937
-0.072875544 -0.11986923 0.70499998 4283321144
-0.073082291 -0.1133582 0.70700002 4283190071
-0.073185652 -0.11214638 0.708 4283519035
-0.073289022 -0.11093068 0.70899999 4283256120
-0.073185652 -0.10940207 0.708 4282597934
-0.072978914 -0.10772473 0.70599997 4282597935
-0.072978914 -0.10635646 0.70599997 4283650624
-0.072978914 -0.10498817 0.70599997 4284242505
-0.072978914 -0.1036199 0.70599997 4284176456
-0.073185652 -0.10254128 0.708 4283715906
-0.072875544 -0.095275067 0.70499998 4283123514
-0.072978914 -0.094041929 0.70599997 4283518527
-0.073082291 -0.092804916 0.70700002 4283453245
-0.073082291 -0.091434702 0.70700002 4283058487
-0.073185652 -0.090191871 0.708 4282532143
-0.073289022 -0.088945165 0.70899999 4282532143
-0.073185652 -0.087447554 0.708 4283387452
-0.072978914 -0.085832246 0.70599997 4284308554
-0.072875544 -0.084344327 0.70499998 4284176969
-0.072565436 -0.08262489 0.70200002 4283979589
-0.072668806 -0.081380121 0.70300001 4283782210
-0.072875544 -0.080245301 0.70499998 4283124537
-0.072978914 -0.078990839 0.70599997 4283585347
-0.073185652 -0.077842459 0.708 4283848519
-0.073185652 -0.076470301 0.708 4283387198
-0.073082291 -0.070881419 0.70700002 4283255614
-0.073185652 -0.069609515 0.708 4283058236
-0.073289022 -0.068333738 0.70899999 4283059005
-0.064512819 -0.14265059 0.63599998 4287394837
-0.071511857 -0.14856243 0.70499998 4283318552
-0.071613289 -0.14740488 0.70599997 4283253031
-0.071613289 -0.1460366 0.70599997 4283450931
-0.071613289 -0.14466831 0.70599997 4283846199
-0.071613289 -0.13372207 0.70599997 4283649592
-0.071613289 -0.13235378 0.70599997 4284307778
-0.071714729 -0.13117105 0.70700002 4284505155
-0.071816161 -0.12998442 0.708 4283321395
-0.071816161 -0.12861226 0.708 4282137122
-0.071917601 -0.12741981 0.70899999 4282466088
-0.071816161 -0.12449579 0.708 4283255606
-0.071816161 -0.12312363 0.708 4283452986
-0.071714729 -0.12157951 0.70700002 4283321144
-0.071613289 -0.12003926 0.70599997 4283189558
-0.071613289 -0.11867098 0.70599997 4283057972
-0.071613289 -0.1173027 0.70599997 4282729006
-0.071714729 -0.11609864 0.70700002 4283452730
-0.071816161 -0.11489069 0.708 4283979330
-0.071816161 -0.11351854 0.708 4283650621
-0.071816161 -0.11214638 0.708 4283518778
-0.071917601 -0.11093068 0.70899999 4282795312
-0.071816161 -0.10940207 0.708 4282401324
-0.071511857 -0.10757215 0.70499998 4282269226
-0.071511857 -0.10620581 0.70499998 4282466349
-0.071613289 -0.10498817 0.70599997 4283124280
-0.071511857 -0.10347313 0.70499998 4283123768
-0.071714729 -0.10239645 0.70700002 4282794804
-0.071613289 -0.09677849 0.70599997 4283123769
-0.071511857 -0.095275067 0.70499998 4283847492
-0.071511857 -0.093908727 0.70499998 4284044870
-0.071613289 -0.092673644 0.70599997 4283979076
-0.071613289 -0.091305368 0.70599997 4283518782
-0.071816161 -0.090191871 0.708 4282992694
-0.071917601 -0.088945165 0.70899999 4282663729
-0.071816161 -0.087447554 0.708 4283124280
-0.071613289 -0.085832246 0.70599997 4284045382
-0.071511857 -0.084344327 0.70499998 4284111175
-0.071207553 -0.08262489 0.70200002 4284111175
-0.071207553 -0.081264362 0.70200002 4283979589
-0.071511857 -0.080245301 0.70499998 4283453245
-0.071714729 -0.079102732 0.70700002 4283059001
-0.071917601 -0.077952407 0.70899999 4282993208
-0.071917601 -0.076578312 0.70899999 4282729522
-0.071917601 -0.071081929 0.70899999 4282729271
-0.072019033 -0.069806151 0.70999998 4282795064
-0.072019033 -0.068430118 0.70999998 4282926650
-0.060894579 -0.21199195 0.61199999 4289175961
-0.060596079 -0.2097725 0.60900003 4289570711
-0.063083604 -0.14097327 0.634 4287658268
-0.063083604 -0.13974452 0.634 4287527197
-0.070048667 -0.1483517 0.704 4284503322
-0.070247665 -0.14740488 0.70599997 4283318562
-0.070347175 -0.14624345 0.70700002 4283648304
-0.070347175 -0.14487323 0.70700002 4283714102
-0.070347175 -0.13391149 0.70700002 4283518006
-0.070247665 -0.13235378 0.70599997 4284175936
-0.070347175 -0.13117105 0.70700002 4283978811
-0.07044667 -0.12998442 0.708 4282729001
-0.07044667 -0.12861226 0.708 4282400295
-0.07044667 -0.12724011 0.708 4282663467
-0.070347175 -0.1202093 0.70700002 4282597421
-0.070347175 -0.11883908 0.70700002 4282465834
-0.070347175 -0.11746886 0.70700002 4282926385
-0.07044667 -0.11626285 0.708 4284044867
-0.07044667 -0.11489069 0.708 4284110659
-0.070546173 -0.11367887 0.70899999 4283584571
-0.07044667 -0.11214638 0.708 4283321397
-0.070546173 -0.11093068 0.70899999 4282663981
-0.070347175 -0.10924754 0.70700002 4282993461
-0.070247665 -0.09677849 0.70599997 4283189562
-0.07014817 -0.095275067 0.70499998 4283847492
-0.07014817 -0.093908727 0.70499998 4284110663
-0.070247665 -0.092673644 0.70599997 4283781697
-0.070247665 -0.091305368 0.70599997 4283453245
-0.07044667 -0.090191871 0.708 4282992440
-0.070546173 -0.088945165 0.70899999 4282466096
-0.07044667 -0.087447554 0.708 4282926645
-0.070247665 -0.085832246 0.70599997 4283584831
-0.07014817 -0.084344327 0.70499998 4283716417
-0.06984967 -0.08262489 0.70200002 4283782210
-0.06984967 -0.081264362 0.70200002 4283650624
-0.07014817 -0.080245301 0.70499998 4283255866
-0.070347175 -0.079102732 0.70700002 4282795829
-0.070546173 -0.077952407 0.70899999 4282400814
-0.070645668 -0.076686315 0.70999998 4282532143
-0.070546173 -0.071081929 0.70899999 4283058236
-0.070645668 -0.069806151 0.70999998 4283189822
-0.070645668 -0.068430118 0.70999998 4283321408
-0.059613217 -0.21164556 0.611 4288254598
-0.059418086 -0.2097725 0.60900003 4288253817
-0.061174277 -0.21354231 0.62699997 4292132180
-0.061076712 -0.21198849 0.62599999 4292790330
-0.06293048 -0.14591928 0.64499998 4288315934
-0.061564546 -0.14030619 0.63099998 4287395095
-0.061759684 -0.1395241 0.63300002 4287527197
-0.068491779 -0.14793026 0.70200002 4285621531
-0.068784475 -0.14719608 0.70499998 4284108321
-0.068979613 -0.14624345 0.70700002 4283648551
-0.068979613 -0.14487323 0.70700002 4283648304
-0.068882041 -0.13372207 0.70599997 4282794283
-0.068882041 -0.13235378 0.70599997 4283518006
-0.068979613 -0.13117105 0.70700002 4283518262
-0.069077179 -0.12998442 0.708 4282925868
-0.069077179 -0.12861226 0.708 4283189298
-0.069077179 -0.12724011 0.708 4283386679
-0.069174744 -0.12054934 0.70899999 4282334504
-0.069174744 -0.11917525 0.70899999 4282400297
-0.069174744 -0.11780116 0.70899999 4282663469
-0.069174744 -0.11642706 0.70899999 4283058228
-0.06927231 -0.11521524 0.70999998 4283716157
-0.069174744 -0.11367887 0.70899999 4283650363
-0.069077179 -0.11214638 0.708 4283189811
-0.069077179 -0.11077422 0.708 4282532138
-0.068979613 -0.10924754 0.70700002 4282992946
-0.069077179 -0.10116912 0.708 4283321148
-0.069077179 -0.099796966 0.708 4282729011
-0.069077179 -0.098424815 0.708 4282992183
-0.068979613 -0.096915573 0.70700002 4283057976
-0.068882041 -0.095410205 0.70599997 4283518527
-0.068784475 -0.093908727 0.70499998 4284044869
-0.068882041 -0.092673644 0.70599997 4283518525
-0.068882041 -0.091305368 0.70599997 4283452990
-0.069077179 -0.090191871 0.708 4282335280
-0.069174744 -0.088945165 0.70899999 4282006058
-0.069077179 -0.087447554 0.708 4282335279
-0.068979613 -0.085953824 0.70700002 4282927415
-0.068882041 -0.084463961 0.70599997 4283190587
-0.068589345 -0.082742587 0.70300001 4283387966
-0.06927231 -0.078062348 0.70999998 4282466350
-0.069369882 -0.076794334 0.71100003 4282729524
-0.069369882 -0.075416356 0.71100003 4283190590
-0.069467448 -0.074142523 0.71200001 4283519556
-0.069467448 -0.072762609 0.71200001 4282993212
-0.069467448 -0.071382701 0.71200001 4283387200
-0.069467448 -0.070002794 0.71200001 4283979337
-0.069369882 -0.068526506 0.71100003 4284242510
-0.059865836 -0.21320173 0.62599999 4292461132
-0.059865836 -0.21198849 0.62599999 4292921913
-0.061778486 -0.14739752 0.64600003 4288973088
-0.06168285 -0.14591928 0.64499998 4288775715
-0.060152736 -0.13986149 0.62900001 4287329042
-0.060343996 -0.13908327 0.63099998 4287461145
-0.06703826 -0.14771952 0.70099998 4286279705
-0.06732516 -0.1469873 0.704 4285161500
-0.067612059 -0.14624345 0.70700002 4283648282
-0.067707688 -0.14507814 0.708 4282727194
-0.067803316 -0.11367887 0.70899999 4283124019
-0.067707688 -0.11214638 0.708 4282597674
-0.067707688 -0.11077422 0.708 4282663467
-0.067516416 -0.10909302 0.70599997 4282992945
-0.067707688 -0.10116912 0.708 4283452733
-0.067707688 -0.099796966 0.708 4283452732
-0.067707688 -0.098424815 0.708 4283386941
-0.067707688 -0.097052656 0.708 4282860597
-0.067516416 -0.095410205 0.70599997 4282465838
-0.067420788 -0.093908727 0.70499998 4283255353
-0.067516416 -0.092673644 0.70599997 4283781954
-0.067516416 -0.091305368 0.70599997 4283321917
-0.067707688 -0.090191871 0.708 4282466866
-0.067898951 -0.089070611 0.70999998 4282730038
-0.067803316 -0.08757107 0.70899999 4283124796
-0.067612059 -0.085953824 0.70700002 4283519552
-0.067516416 -0.084463961 0.70599997 4283651138
-0.06732516 -0.082860291 0.704 4283190587
-0.067994587 -0.078172304 0.71100003 4283190073
-0.067994587 -0.076794334 0.71100003 4283453247
-0.067994587 -0.075416356 0.71100003 4283322176
-0.068090215 -0.074142523 0.71200001 4283980107
-0.068185851 -0.072864801 0.713 4283848521
-0.068185851 -0.071482956 0.713 4283650372
-0.068281479 -0.07019943 0.71399999 4283452993
-0.068090215 -0.06862288 0.71200001 4284110923
-0.056968391 -0.20824967 0.60799998 4291738722
-0.056687303 -0.20604961 0.60500002 4292527427
-0.056499902 -0.20419978 0.60299999 4293054009
-0.058936052 -0.1374234 0.62900001 4287395099
-0.066057101 -0.14582974 0.70499998 4283714314
-0.066244498 -0.14487323 0.70700002 4281806595
-0.066525586 -0.12209541 0.70999998 4283584571
-0.066525586 -0.12071937 0.70999998 4283518778
-0.066619292 -0.11951143 0.71100003 4283189813
-0.066244498 -0.11061776 0.70700002 4283781948
-0.066150799 -0.10909302 0.70599997 4283979583
-0.066057101 -0.10757215 0.70499998 4283781949
-0.066244498 -0.10102623 0.70700002 4283189560
-0.066244498 -0.099656016 0.70700002 4283650111
-0.066244498 -0.098285794 0.70700002 4283715904
-0.066150799 -0.09677849 0.70599997 4283123767
-0.066057101 -0.095275067 0.70499998 4282531630
-0.066057101 -0.093908727 0.70499998 4282202665
-0.066338196 -0.088819712 0.708 4283585347
-0.066244498 -0.087324046 0.70700002 4283914312
-0.066150799 -0.085832246 0.70599997 4283585345
-0.066057101 -0.084344327 0.70499998 4283782724
-0.065869704 -0.082742587 0.70300001 4283256380
-0.066525586 -0.078062348 0.70999998 4283716417
-0.066619292 -0.076794334 0.71100003 4283716163
-0.066619292 -0.075416356 0.71100003 4283716678
-0.06671299 -0.074142523 0.71200001 4283716935
-0.06690038 -0.072967 0.71399999 4283650628
-0.06690038 -0.071583211 0.71399999 4283584579
-0.066994078 -0.07029774 0.71499997 4283255614
-0.06690038 -0.068815641 0.71399999 4283255614
-0.055792332 -0.20824967 0.60799998 4291870805
-0.055608805 -0.20639019 0.60600001 4292527678
-0.055425275 -0.20453842 0.60399997 4293119801
-0.057627607 -0.13720492 0.62800002 4287395096
-0.057719372 -0.13620435 0.62900001 4287329817
-0.057902895 -0.1354145 0.63099998 4287067674
-0.065152228 -0.12209541 0.70999998 4283650364
-0.065243997 -0.1208894 0.71100003 4283386678
-0.065243997 -0.11951143 0.71100003 4282728749
-0.064785175 -0.11046129 0.70599997 4283847741
-0.064785175 -0.10909302 0.70599997 4284110913
-0.064693414 -0.10757215 0.70499998 4284110914
-0.064785175 -0.10635646 0.70599997 4283386936
-0.064876944 -0.10102623 0.70700002 4282531630
-0.064876944 -0.099656016 0.70700002 4283650111
-0.064785175 -0.098146774 0.70599997 4284044869
-0.064693414 -0.096641414 0.70499998 4284176455
-0.064693414 -0.095275067 0.70499998 4283715904
-0.064601645 -0.093775526 0.704 4282729009
-0.064785175 -0.088568807 0.70599997 4283585347
-0.064693414 -0.087077014 0.70499998 4283453761
-0.064601645 -0.085589096 0.704 4283519552
-0.064601645 -0.084224693 0.704 4283190587
-0.064509884 -0.082742587 0.70300001 4282927415
-0.065152228 -0.078062348 0.70999998 4283058487
-0.065243997 -0.076794334 0.71100003 4283321404
-0.065243997 -0.075416356 0.71100003 4283584579
-0.065335758 -0.074142523 0.71200001 4283453249
-0.065427519 -0.072864801 0.713 4283321407
-0.065519281 -0.071583211 0.71399999 4284045130
-0.06561105 -0.07029774 0.71499997 4284374095
-0.065519281 -0.068815641 0.71399999 4283781958
-0.054616269 -0.20824967 0.60799998 4292067915
-0.05425695 -0.20570901 0.60399997 4292659257
-0.054167122 -0.20419978 0.60299999 4293185333
-0.054616269 -0.13165697 0.60799998 4287527449
-0.05677218 -0.1356291 0.63200003 4287002135
-0.063239895 -0.14289409 0.704 4284174616
-0.063329719 -0.14173071 0.70499998 4283911719
-0.06377887 -0.12209541 0.70999998 4283321143
-0.063868701 -0.1208894 0.71100003 4282794285
-0.063868701 -0.11951143 0.71100003 4282531113
-0.063419551 -0.11046129 0.70599997 4283189811
-0.063329719 -0.10893849 0.70499998 4283847741
-0.063329719 -0.10757215 0.70499998 4283979329
-0.063419551 -0.10635646 0.70599997 4283781951
-0.063419551 -0.10498817 0.70599997 4282860593
-0.063419551 -0.1036199 0.70599997 4282597421
-0.063419551 -0.10225161 0.70599997 4283452732
-0.063509382 -0.10102623 0.70700002 4282860595
-0.063419551 -0.099515051 0.70599997 4283123767
-0.063419551 -0.098146774 0.70599997 4283386939
-0.063329719 -0.096641414 0.70499998 4283781695
-0.063239895 -0.095139928 0.704 4284176453
-0.063239895 -0.093775526 0.704 4283716160
-0.063329719 -0.088443354 0.70499998 4283256380
-0.063239895 -0.086953498 0.704 4283256380
-0.063150063 -0.085467525 0.70300001 4283190587
-0.063150063 -0.08410506 0.70300001 4282992694
-0.063150063 -0.082742587 0.70300001 4282598193
-0.06377887 -0.078062348 0.70999998 4282992181
-0.063868701 -0.076794334 0.71100003 4283584831
-0.063868701 -0.075416356 0.71100003 4283650370
-0.063958533 -0.074142523 0.71200001 4283321149
-0.064048357 -0.072864801 0.713 4284176203
-0.064138189 -0.071583211 0.71399999 4285163098
-0.064138189 -0.07019943 0.71399999 4285097305
-0.064138189 -0.068815641 0.71399999 4284965719
-0.053352315 -0.20790717 0.60699999 4292395842
-0.053000733 -0.20536844 0.60299999 4292725300
-0.052912839 -0.20386115 0.602 4293250610
-0.053352315 -0.13144043 0.60699999 4287593242
-0.055286009 -0.13376625 0.62900001 4287067672
-0.061702352 -0.14112762 0.70200002 4284438046
-0.062317614 -0.11780116 0.70899999 4283451959
-0.062141825 -0.11609864 0.70700002 4283715387
-0.062141825 -0.11472842 0.70700002 4283913281
-0.062053926 -0.11319786 0.70599997 4283781950
-0.061966032 -0.11167118 0.70499998 4282860847
-0.061966032 -0.11030484 0.70499998 4282597675
-0.061966032 -0.10893849 0.70499998 4283255604
-0.061966032 -0.10757215 0.70499998 4284176708
-0.062053926 -0.10635646 0.70599997 4284308038
-0.062053926 -0.10498817 0.70599997 4283321144
-0.062053926 -0.1036199 0.70599997 4283452730
-0.062053926 -0.10225161 0.70599997 4284308040
-0.062053926 -0.10088333 0.70599997 4283847490
-0.062053926 -0.099515051 0.70599997 4282729009
-0.061966032 -0.098007753 0.70499998 4282926387
-0.061966032 -0.096641414 0.70499998 4283715902
-0.061966032 -0.095275067 0.70499998 4284308039
-0.061966032 -0.093908727 0.70499998 4283913539
-0.061966032 -0.09254238 0.70499998 4283453245
-0.061966032 -0.09117604 0.70499998 4282532143
-0.061878137 -0.089682311 0.704 4282795315
-0.061790243 -0.088192455 0.70300001 4283848003
-0.061702352 -0.086706474 0.70200002 4284177482
-0.061702352 -0.085345946 0.70200002 4284374861
-0.061702352 -0.083985418 0.70200002 4284111431
-0.061702352 -0.08262489 0.70200002 4283453245
-0.062317614 -0.077952407 0.70899999 4283123767
-0.062405508 -0.076686315 0.70999998 4283979076
-0.062405508 -0.075310282 0.70999998 4284110664
-0.062493406 -0.074038386 0.71100003 4283913285
-0.062581301 -0.072762609 0.71200001 4284373836
-0.062581301 -0.071382701 0.71200001 4285294938
-0.062669195 -0.070101112 0.713 4285097559
-0.062581301 -0.06862288 0.71200001 4285031511
-0.052178189 -0.20790717 0.60699999 4292592957
-0.053897403 -0.13334091 0.62699997 4287133721
-0.060946185 -0.11780116 0.70899999 4283846974
-0.060774267 -0.11609864 0.70700002 4283847231
-0.060774267 -0.11472842 0.70700002 4284044867
-0.060688302 -0.11319786 0.70599997 4283979073
-0.060602345 -0.11167118 0.70499998 4283518778
-0.060602345 -0.11030484 0.70499998 4282860848
-0.060688302 -0.10909302 0.70599997 4282466090
-0.060688302 -0.10772473 0.70599997 4283387192
-0.060774267 -0.10650711 0.70700002 4283913537
-0.060688302 -0.10498817 0.70599997 4283518523
-0.060688302 -0.1036199 0.70599997 4283386937
-0.060688302 -0.10225161 0.70599997 4284439625
-0.060688302 -0.10088333 0.70599997 4284505161
-0.060602345 -0.099374093 0.70499998 4283123765
-0.060602345 -0.098007753 0.70499998 4282334249
-0.060688302 -0.09677849 0.70599997 4283123765
-0.060602345 -0.095275067 0.70499998 4284110916
-0.060688302 -0.094041929 0.70599997 4283913794
-0.060688302 -0.092673644 0.70599997 4283650624
-0.060602345 -0.09117604 0.70499998 4282729522
-0.060430422 -0.089554921 0.70300001 4282861107
-0.060344465 -0.088067003 0.70200002 4284176966
-0.060344465 -0.086706474 0.70200002 4284571211
-0.060344465 -0.085345946 0.70200002 4284637519
-0.060344465 -0.083985418 0.70200002 4284637261
-0.060344465 -0.08262489 0.70200002 4283979588
-0.060774267 -0.077732511 0.70700002 4283452732
-0.060946185 -0.076578312 0.70899999 4284045382
-0.061032146 -0.075310282 0.70999998 4284439884
-0.061118111 -0.074038386 0.71100003 4284044871
-0.061118111 -0.072660416 0.71100003 4283913030
-0.061032146 -0.071182184 0.70999998 4285228890
-0.061032146 -0.069806151 0.70999998 4285294684
-0.060946185 -0.068333738 0.70899999 4285031512
-0.051004063 -0.20790717 0.60699999 4292790331
-0.052768618 -0.13233647 0.62800002 4287462683
-0.052852646 -0.13132815 0.62900001 4287134233
-0.053104725 -0.13072965 0.63200003 4287002906
-0.053188752 -0.12970971 0.63300002 4286805783
-0.058986578 -0.13840656 0.70200002 4284306466
-0.059238654 -0.13763168 0.70499998 4283581990
-0.05957476 -0.11780116 0.70899999 4283649595
-0.059406709 -0.11609864 0.70700002 4283912767
-0.059406709 -0.11472842 0.70700002 4284044867
-0.059322678 -0.11319786 0.70599997 4284044866
-0.059238654 -0.11167118 0.70499998 4283781950
-0.059322678 -0.1036199 0.70599997 4283123765
-0.059322678 -0.10225161 0.70599997 4284308039
-0.059322678 -0.10088333 0.70599997 4284505419
-0.059238654 -0.099374093 0.70499998 4283781695
-0.059322678 -0.098146774 0.70599997 4282531628
-0.059322678 -0.09677849 0.70599997 4282663214
-0.059322678 -0.095410205 0.70599997 4283321400
-0.059322678 -0.094041929 0.70599997 4283650622
-0.059322678 -0.092673644 0.70599997 4283848003
-0.059238654 -0.09117604 0.70499998 4282861108
-0.05915463 -0.089682311 0.704 4282597935
-0.059070602 -0.088192455 0.70300001 4283518523
-0.059070602 -0.08682999 0.70300001 4284373832
-0.059070602 -0.085467525 0.70300001 4284505676
-0.059070602 -0.08410506 0.70300001 4284373833
-0.059070602 -0.082742587 0.70300001 4283716417
-0.05957476 -0.076578312 0.70899999 4283979589
-0.059658784 -0.075310282 0.70999998 4284242248
-0.059742816 -0.074038386 0.71100003 4283781699
-0.059742816 -0.072660416 0.71100003 4283847492
-0.059658784 -0.071182184 0.70999998 4284834132
-0.059658784 -0.069806151 0.70999998 4285031512
-0.05957476 -0.068333738 0.70899999 4285228891
-0.049829934 -0.20790717 0.60699999 4292790581
-0.051553871 -0.13233647 0.62800002 4287396374
-0.051635962 -0.13132815 0.62900001 4287265305
-0.051882241 -0.13072965 0.63200003 4287331612
-0.052046422 -0.12991461 0.634 4287002904
-0.057792872 -0.13743646 0.704 4283779611
-0.058203336 -0.11780116 0.70899999 4282925872
-0.058121242 -0.11626285 0.708 4283518009
-0.058121242 -0.11489069 0.708 4283650109
-0.058121242 -0.11351854 0.708 4283715902
-0.058039151 -0.11198799 0.70700002 4283518779
-0.057957057 -0.1036199 0.70599997 4283189558
-0.057957057 -0.10225161 0.70599997 4283584318
-0.057957057 -0.10088333 0.70599997 4283781695
-0.057874966 -0.099374093 0.70499998 4283321144
-0.057957057 -0.098146774 0.70599997 4282597421
-0.058039151 -0.096915573 0.70700002 4282400042
-0.058121242 -0.076470301 0.708 4283913796
-0.058203336 -0.075204216 0.70899999 4283913796
-0.058367521 -0.074038386 0.71100003 4283847492
-0.058367521 -0.072660416 0.71100003 4283715906
-0.058203336 -0.071081929 0.70899999 4284834387
-0.058203336 -0.069707833 0.70899999 4285229145
-0.058121242 -0.068237357 0.708 4285163098
-0.048735965 -0.20824967 0.60799998 4292791349
-0.050579596 -0.13052279 0.63099998 4287199768
-0.050659757 -0.12950478 0.63200003 4287266076
-0.056912065 -0.12209541 0.70999998 4283189814
-0.056912065 -0.12071937 0.70999998 4283189558
-0.056912065 -0.11934334 0.70999998 4282794543
-0.056912065 -0.11796731 0.70999998 4282728493
-0.056912065 -0.11659127 0.70999998 4282860079
-0.056912065 -0.11521524 0.70999998 4282925872
-0.056912065 -0.11383921 0.70999998 4283123508
-0.056831907 -0.11230478 0.70899999 4283123251
-0.056511275 -0.099374093 0.70499998 4282597421
-0.056591433 -0.098146774 0.70599997 4282597421
-0.056591433 -0.09677849 0.70599997 4282334249
-0.056671593 -0.076362297 0.70700002 4283650624
-0.05675175 -0.075098142 0.708 4283913796
-0.056831907 -0.07383012 0.70899999 4283979076
-0.056912065 -0.072558217 0.70999998 4283584320
-0.05675175 -0.070981674 0.708 4284439629
-0.05675175 -0.069609515 0.708 4284900180
-0.056671593 -0.068140984 0.70700002 4284768594
-0.047638129 -0.20859221 0.60900003 4292923193
-0.049593717 -0.12868588 0.634 4286805014
-0.055538703 -0.12209541 0.70999998 4283320630
-0.05561693 -0.1208894 0.71100003 4283452730
-0.05561693 -0.11951143 0.71100003 4283584059
-0.055538703 -0.11796731 0.70999998 4283583802
-0.055538703 -0.11659127 0.70999998 4283452216
-0.055538703 -0.11521524 0.70999998 4283386423
-0.055538703 -0.11383921 0.70999998 4283320630
-0.055147588 -0.099374093 0.70499998 4282860595
-0.055225808 -0.098146774 0.70599997 4283189560
-0.055225808 -0.09677849 0.70599997 4283123767
-0.055225808 -0.076254278 0.70599997 4283255866
-0.055382259 -0.075098142 0.708 4284110662
-0.055460483 -0.07383012 0.70899999 4283584318
-0.055460483 -0.072456025 0.70899999 4283321146
-0.055382259 -0.070981674 0.708 4283781699
-0.055382259 -0.069609515 0.708 4284044871
-0.055304036 -0.068140984 0.70700002 4284242507
-0.046460137 -0.20859221 0.60900003 4292988214
-0.048291076 -0.12848289 0.63300002 4287002132
-0.048443653 -0.12765816 0.63499999 4287002394
-0.048519939 -0.12662658 0.63599998 4286739994
-0.053783897 -0.13353266 0.70499998 4283319828
-0.053783897 -0.13216631 0.70499998 4283188006
-0.054165345 -0.12209541 0.70999998 4282925872
-0.054241635 -0.1208894 0.71100003 4283254836
-0.054241635 -0.11951143 0.71100003 4283254837
-0.054165345 -0.11796731 0.70999998 4283452216
-0.054165345 -0.11659127 0.70999998 4283189044
-0.054241635 -0.11537752 0.71100003 4283254837
-0.054241635 -0.11399955 0.71100003 4283320630
-0.053860188 -0.099515051 0.70599997 4283321146
-0.053860188 -0.098146774 0.70599997 4284044869
-0.053783897 -0.096641414 0.70499998 4284110662
-0.054012768 -0.076470301 0.708 4282992694
-0.054012768 -0.075098142 0.708 4283387195
-0.054089054 -0.07383012 0.70899999 4283452732
-0.054089054 -0.072456025 0.70899999 4284110662
-0.053936478 -0.070881419 0.70700002 4284374093
-0.053936478 -0.069511198 0.70700002 4284176714
-0.053860188 -0.068044595 0.70599997 4283913541
-0.04528214 -0.20859221 0.60900003 4293184818
-0.045207784 -0.20707133 0.60799998 4293250861
-0.045133427 -0.20555435 0.60699999 4293052717
-0.047364078 -0.12559114 0.63700002 4286871578
-0.05242021 -0.13353266 0.70499998 4285227801
-0.05242021 -0.13216631 0.70499998 4283648790
-0.052643273 -0.12312363 0.708 4283254836
-0.052791983 -0.12209541 0.70999998 4283254580
-0.05286634 -0.1208894 0.71100003 4283189043
-0.05286634 -0.11951143 0.71100003 4283189043
-0.052494563 -0.099515051 0.70599997 4284176455
-0.052494563 -0.098146774 0.70599997 4284373834
-0.05242021 -0.096641414 0.70499998 4283979332
-0.052494563 -0.085832246 0.70599997 4282729011
-0.05256892 -0.08458361 0.70700002 4283452734
-0.05256892 -0.083213389 0.70700002 4283452734
-0.05256892 -0.081843168 0.70700002 4283584318
-0.05256892 -0.080472954 0.70700002 4283255353
-0.05271763 -0.079326496 0.70899999 4282860594
-0.05271763 -0.07383012 0.70899999 4283781697
-0.052643273 -0.072353832 0.708 4284768849
-0.052494563 -0.070781156 0.70599997 4285032023
-0.05256892 -0.069511198 0.70700002 4284834899
-0.052494563 -0.068044595 0.70599997 4284506449
-0.044104144 -0.20741193 0.60900003 4293316396
-0.043959301 -0.20555435 0.60699999 4293118765
-0.046059497 -0.12416136 0.63599998 4287133979
-0.04613192 -0.12312203 0.63700002 4286871065
-0.051128939 -0.1309855 0.70599997 4283911703
-0.051346201 -0.12604572 0.70899999 4283320116
-0.051273782 -0.12449579 0.708 4283649081
-0.051273782 -0.12312363 0.708 4283715387
-0.051346201 -0.12192344 0.70899999 4283517495
-0.051418621 -0.12071937 0.70999998 4283583544
-0.051418621 -0.11934334 0.70999998 4283452472
-0.051056519 -0.099374093 0.70499998 4284242248
-0.051056519 -0.098007753 0.70499998 4284439627
-0.051056519 -0.096641414 0.70499998 4283584574
-0.051201362 -0.085953824 0.70700002 4282992183
-0.051201362 -0.08458361 0.70700002 4283847492
-0.051273782 -0.083331086 0.708 4283847492
-0.051346201 -0.082074687 0.70899999 4283781697
-0.051346201 -0.080700591 0.70899999 4283847490
-0.051491044 -0.079550274 0.71100003 4283386424
-0.051273782 -0.072353832 0.708 4284308554
-0.051201362 -0.070881419 0.70700002 4284768851
-0.051201362 -0.069511198 0.70700002 4284440654
-0.051128939 -0.068044595 0.70599997 4284045896
-0.042855661 -0.20707133 0.60799998 4293382446
-0.042714689 -0.20521571 0.60600001 4293381933
-0.04250323 -0.20303112 0.60299999 4292855591
-0.044758789 -0.12396614 0.63499999 4287199512
-0.044758789 -0.12273546 0.63499999 4287134233
-0.049622346 -0.12925003 0.704 4283714073
-0.049692832 -0.12806728 0.70499998 4282331923
-0.049833804 -0.12706038 0.70700002 4283055911
-0.049904291 -0.12586795 0.708 4283451442
-0.049904291 -0.12449579 0.708 4283320114
-0.049904291 -0.12312363 0.708 4283320114
-0.049904291 -0.12175148 0.708 4283122993
-0.049904291 -0.12037932 0.708 4282794285
-0.049974777 -0.11917525 0.70899999 4282662698
-0.049622346 -0.099233143 0.704 4283189560
-0.049622346 -0.097868741 0.704 4283847490
-0.049692832 -0.096641414 0.70499998 4283321146
-0.049904291 -0.086075403 0.708 4283189561
-0.049904291 -0.084703244 0.708 4283847491
-0.049974777 -0.083448783 0.70899999 4284044869
-0.050045263 -0.082190447 0.70999998 4284044869
-0.050115749 -0.080928244 0.71100003 4283650111
-0.050186235 -0.079662159 0.71200001 4282992180
-0.049904291 -0.072353832 0.708 4283321402
-0.049833804 -0.070881419 0.70700002 4283650624
-0.049833804 -0.069511198 0.70700002 4283519038
-0.049833804 -0.068140984 0.70700002 4283453245
-0.042844985 -0.21528375 0.625 4291934828
-0.041336838 -0.20303112 0.60299999 4293053225
-0.041199736 -0.20119295 0.60100001 4292987436
-0.041131187 -0.19969535 0.60000002 4293185585
-0.043461952 -0.12131343 0.634 4287002648
-0.04373616 -0.12084233 0.63800001 4287068956
-0.04373616 -0.11960584 0.63800001 4286674715
-0.048123486 -0.12888286 0.70200002 4285819941
-0.048192039 -0.12770398 0.70300001 4283845400
-0.048397694 -0.12688066 0.70599997 4283187230
-0.048466247 -0.12569018 0.70700002 4283187491
-0.048466247 -0.12431996 0.70700002 4282661666
-0.048466247 -0.12294973 0.70700002 4282003997
